# .PCD v0.7 - Point Cloud Data file format
VERSION 0.7
FIELDS x y z
SIZE 4 4 4
TYPE F F F
COUNT 1 1 1
WIDTH 1527
HEIGHT 1
VIEWPOINT 0 0 0 1 0 0 0
POINTS 1527
DATA ascii
-1.440569 -0.61783397 -1.289939
-1.333855 -0.60049689 -1.289471
-1.272202 -0.61062223 -1.287146
-1.1215121 -0.61801571 -1.293316
-1.065051 -0.61675167 -1.285956
-1.460559 -0.58990842 -1.296293
-1.392265 -0.59711701 -1.2904069
-1.293504 -0.5823313 -1.293885
-1.232662 -0.59164441 -1.29031
-1.1282001 -0.59070128 -1.2862099
-1.083967 -0.5973264 -1.29318
-1.404665 -0.56733298 -1.2904069
-1.344368 -0.5765751 -1.289471
-1.246775 -0.56129408 -1.29031
-1.136131 -0.57530028 -1.2862099
-1.363297 -0.55062509 -1.296084
-1.29691 -0.55622101 -1.287146
-1.148088 -0.55105108 -1.2862099
-1.482285 -0.53296852 -1.296293
-1.374606 -0.52175379 -1.296084
-1.30846 -0.52847689 -1.287146
-1.256602 -0.53893387 -1.29031
-1.432723 -0.51514792 -1.296891
-1.267794 -0.51205212 -1.29031
-1.376518 -0.49493879 -1.289471
-1.2783099 -0.4852033 -1.29031
-1.227411 -0.49574161 -1.292363
-1.503216 -0.4707076 -1.296293
-1.386415 -0.46649441 -1.289471
-1.286653 -0.46262711 -1.29031
-1.230902 -0.46720889 -1.285378
-1.344475 -0.45238239 -1.293885
-1.245669 -0.447891 -1.292363
-1.190604 -0.45191309 -1.2862099
-1.512965 -0.4383615 -1.296293
-1.462377 -0.4237043 -1.296891
-1.403114 -0.4393622 -1.296084
-1.353726 -0.42389721 -1.293885
-1.295905 -0.43603969 -1.29031
-1.254626 -0.4221504 -1.292363
-1.198374 -0.43088591 -1.2862099
-1.5208319 -0.41023731 -1.296293
-1.405008 -0.4070825 -1.289471
-1.304821 -0.40858349 -1.29031
-1.206991 -0.4061226 -1.2862099
-1.419556 -0.38291869 -1.296084
-1.362506 -0.39476779 -1.293885
-1.313284 -0.38050649 -1.29031
-1.263258 -0.39556879 -1.292363
-1.215296 -0.38055021 -1.2862099
-1.166477 -0.39249051 -1.285956
-1.36959 -0.3694405 -1.293885
-1.271451 -0.36838609 -1.292363
-1.4256541 -0.35955179 -1.296084
-1.375473 -0.34689611 -1.293885
-1.320112 -0.35609409 -1.29031
-1.278062 -0.3447513 -1.292363
-1.229936 -0.3563576 -1.293316
-1.54221 -0.3206422 -1.296293
-1.425561 -0.32793409 -1.289471
-1.332835 -0.3361426 -1.297174
-1.2835521 -0.32371351 -1.292363
-1.236331 -0.33349451 -1.293316
-1.4906451 -0.30992109 -1.296891
-1.382436 -0.31801379 -1.293885
-1.339582 -0.30815569 -1.297174
-1.23482 -0.31142309 -1.2862099
-1.1933711 -0.30096969 -1.285956
-1.4395109 -0.29929 -1.296084
-1.388842 -0.2887553 -1.293885
-1.29005 -0.29676139 -1.292363
-1.247928 -0.28707159 -1.293316
-1.667388 -0.27340031 -1.296908
-1.445514 -0.26880711 -1.296084
-1.34579 -0.2798042 -1.297174
-1.296028 -0.26945829 -1.292363
-1.206151 -0.27746129 -1.29318
-1.351401 -0.251306 -1.297174
-1.308467 -0.243322 -1.299349
-1.246822 -0.25922769 -1.2862099
-1.20497 -0.2505264 -1.285956
-1.3998491 -0.2295322 -1.293885
-1.349278 -0.2212401 -1.29031
-1.252021 -0.2328252 -1.2862099
-1.454044 -0.2179994 -1.296084
-1.402863 -0.21032611 -1.293885
-1.359376 -0.2038063 -1.297174
-1.306299 -0.2141929 -1.292363
-1.256703 -0.2060606 -1.2862099
-1.309112 -0.19627041 -1.292363
-1.259409 -0.1888186 -1.2862099
-1.21452 -0.1991439 -1.285956
-1.363359 -0.1751918 -1.297174
-1.320045 -0.16962589 -1.299349
-1.2700779 -0.1632051 -1.293316
-1.462105 -0.1549693 -1.296084
-1.366913 -0.1448798 -1.297174
-1.323486 -0.140277 -1.299349
-1.227559 -0.1577415 -1.29318
-1.143674 -0.1469623 -1.289694
-1.509409 -0.128977 -1.2904069
-1.273388 -0.1349671 -1.293316
-1.230759 -0.1304488 -1.29318
-1.181754 -0.12525471 -1.284628
-1.369578 -0.1170287 -1.297174
-1.326066 -0.1133107 -1.299349
-1.275871 -0.1090216 -1.293316
-1.190824 -0.1017544 -1.2919689
-1.467252 -0.094537526 -1.296084
-1.371725 -0.088382512 -1.297174
-1.321004 -0.085114501 -1.292363
-1.468938 -0.063160338 -1.296084
-1.235092 -0.079579011 -1.29318
-1.185914 -0.076410413 -1.284628
-1.150692 -0.074141003 -1.289694
-1.115644 -0.071882777 -1.293937
-1.4696651 -0.043048941 -1.296084
-1.3736401 -0.049647182 -1.297174
-1.32967 -0.05717222 -1.299349
-1.279339 -0.055008098 -1.293316
-1.19406 -0.05134137 -1.2919689
-1.145355 -0.049247149 -1.282239
-1.323176 -0.038758039 -1.292363
-1.279972 -0.037492521 -1.293316
-1.194651 -0.034993339 -1.2919689
-1.145921 -0.033565961 -1.282239
-1.575175 -0.006987012 -1.296293
-1.470281 -0.0065217321 -1.296084
-1.418529 -0.006292175 -1.293885
-1.367283 -0.0060648639 -1.29031
-1.32373 -0.0058716792 -1.292363
-1.230726 -0.0054591401 -1.285956
-1.195152 -0.0053013419 -1.2919689
-1.146402 -0.0050851 -1.282239
-1.111408 -0.0049298811 -1.28637
-1.083017 -0.0048039448 -1.297363
-1.1950051 0.019496201 -1.2919689
-1.14626 0.018700941 -1.282239
-1.111272 0.018130111 -1.28637
-1.076476 0.01756243 -1.289686
-1.56726 0.02556945 -1.289939
-1.374386 0.022422761 -1.297174
-1.323567 0.02159366 -1.292363
-1.28035 0.020888589 -1.293316
-1.1457421 0.039213881 -1.282239
-1.469435 0.050292499 -1.296084
-1.417712 0.04852226 -1.293885
-1.373765 0.047018129 -1.297174
-1.322969 0.0452796 -1.292363
-1.279771 0.043801129 -1.293316
-1.194464 0.04088144 -1.2919689
-1.416361 0.078641184 -1.293885
-1.321708 0.073385723 -1.292363
-1.278551 0.070989527 -1.293316
-1.235749 0.068613008 -1.29318
-1.193326 0.066257507 -1.2919689
-1.151305 0.063924357 -1.289694
-1.468034 0.081510238 -1.296084
-1.370975 0.099333033 -1.297174
-1.320282 0.09566012 -1.292363
-1.277173 0.092536643 -1.293316
-1.192039 0.08636833 -1.2919689
-1.143416 0.082845353 -1.282239
-1.108513 0.080316551 -1.28637
-1.466451 0.1062506 -1.296084
-1.414834 0.1025108 -1.293885
-1.274931 0.1195171 -1.293316
-1.189947 0.1115504 -1.2919689
-1.1480449 0.1076223 -1.289694
-1.106568 0.1037341 -1.28637
-1.456408 0.13652951 -1.289471
-1.368569 0.1282952 -1.297174
-1.325089 0.1242192 -1.299349
-1.1873111 0.1367804 -1.2919689
-1.152123 0.1327267 -1.2971489
-1.110612 0.1279445 -1.293937
-1.365538 0.1573125 -1.297174
-1.322154 0.1523146 -1.299349
-1.272107 0.14654911 -1.293316
-1.229521 0.14164311 -1.29318
-1.149069 0.15698969 -1.2971489
-1.107667 0.1513333 -1.293937
-1.460634 0.1682678 -1.296084
-1.268734 0.1733388 -1.293316
-1.1829145 0.1704483 -1.2919689
-1.140056 0.1728051 -1.289694
-1.405486 0.19202229 -1.293885
-1.361917 0.1860698 -1.297174
-1.3137215 0.18927 -1.295856
-1.223675 0.1854798 -1.29318
-1.136289 0.1960506 -1.289694
-1.402522 0.2125887 -1.293885
-1.359046 0.2059986 -1.297174
-1.261876 0.2177189 -1.293316
-1.177762 0.2032062 -1.2919689
-1.125378 0.2186012 -1.282239
-1.097445 0.2131751 -1.293937
-1.4536901 0.2203445 -1.296084
-1.354555 0.23370939 -1.297174
-1.3044699 0.22506779 -1.292363
-1.1732351 0.22789709 -1.2919689
-1.092656 0.23649821 -1.293937
-1.448887 0.24998499 -1.296084
-1.397889 0.2411859 -1.293885
-1.299455 0.25241509 -1.292363
-1.257025 0.2441732 -1.293316
-1.168115 0.25283089 -1.2919689
-1.126982 0.2439279 -1.289694
-1.087401 0.25959009 -1.293937
-1.3925149 0.2704916 -1.293885
-1.3493479 0.2621066 -1.297174
-1.2515399 0.2708877 -1.293316
-1.169103 0.27909431 -1.29931
-1.121562 0.2677452 -1.289694
-1.293785 0.28003129 -1.292363
-1.2455209 0.2973375 -1.293316
-1.122124 0.29298839 -1.2971489
-1.4370199 0.31103349 -1.296084
-1.3299249 0.31748679 -1.29031
-1.287563 0.30737379 -1.292363
-1.156396 0.30193669 -1.2919689
-1.115605 0.316908 -1.2971489
-1.06912 0.30370319 -1.28637
-1.287728 0.3362278 -1.299349
-1.238984 0.32350069 -1.293316
-1.190549 0.33819729 -1.29318
-1.156209 0.32844251 -1.29931
-1.111149 0.3321918 -1.2971489
-1.0711139 0.3202228 -1.293937
-1.023445 0.3341684 -1.289686
-1.430109 0.3414031 -1.296084
-1.372528 0.35836941 -1.293885
-1.329981 0.3472603 -1.297174
-1.2317851 0.3499113 -1.293316
-1.151592 0.3442826 -1.29931
-1.102464 0.35996899 -1.2971489
-1.016364 0.35512319 -1.289686
-0.97153461 0.3590337 -1.284412
-1.322255 0.37561071 -1.297174
-1.280246 0.3636775 -1.299349
-1.226866 0.36678681 -1.293316
-1.136135 0.3709631 -1.2919689
-1.055389 0.3687585 -1.293937
-1.009867 0.37319949 -1.289686
-1.818359 0.39357191 -1.283072
-1.316974 0.3937256 -1.297174
-1.275133 0.38121691 -1.299349
-1.217276 0.39745671 -1.293316
-1.176525 0.38415101 -1.29318
-1.128274 0.39422509 -1.2919689
-1.094836 0.3825416 -1.2971489
-1.048642 0.38752881 -1.293937
-1.001699 0.39459929 -1.289686
-0.96951699 0.38192189 -1.292197
-0.92922848 0.38978589 -1.293909
-1.265166 0.41309339 -1.299349
-1.121061 0.4142918 -1.2919689
-1.087837 0.4020136 -1.2971489
-0.99281073 0.41645679 -1.289686
-0.96091431 0.40307719 -1.292197
-0.94856203 0.41595051 -1.284412
-1.817621 0.4339121 -1.288749
-1.408689 0.4211449 -1.296084
-1.30668 0.42664811 -1.297174
-1.256413 0.4389973 -1.299349
-1.208854 0.42238009 -1.293316
-1.111994 0.43804789 -1.2919689
-1.079038 0.42506561 -1.2971489
-1.030931 0.43244711 -1.293937
-0.98598802 0.43236211 -1.289686
-0.94518298 0.4386988 -1.292197
-1.397678 0.45636019 -1.296084
-1.297639 0.45340201 -1.297174
-1.201126 0.4438799 -1.293316
-1.069464 0.44861081 -1.2971489
-1.023846 0.44896299 -1.293937
-0.97655708 0.4532609 -1.289686
-0.93562639 0.45872721 -1.292197
-1.289343 0.4764809 -1.297174
-1.248381 0.46134299 -1.299349
-1.191411 0.46933261 -1.293316
-1.102127 0.4623121 -1.2919689
-1.094553 0.47996861 -1.2919689
-1.062114 0.46574399 -1.2971489
-1.014053 0.4706642 -1.293937
-0.96668339 0.47395411 -1.289686
-0.92172348 0.47245151 -1.284412
-1.388007 0.48497719 -1.296084
-1.238283 0.48779711 -1.299349
-1.1808389 0.4953298 -1.293316
-1.051955 0.48825639 -1.2971489
-1.0038 0.49215201 -1.293937
-0.96379352 0.49401551 -1.297363
-1.3791341 0.50966328 -1.296084
-1.278915 0.50380301 -1.297174
-1.090243 0.50602752 -1.29931
-1.041319 0.51054728 -1.2971489
-0.99487728 0.50994831 -1.293937
-0.94956458 0.50738192 -1.289686
-1.367979 0.5388881 -1.296084
-1.2188621 0.53447878 -1.299349
-1.161508 0.5391041 -1.293316
-1.073123 0.52614027 -1.2919689
-1.032063 0.52900869 -1.2971489
-0.98602402 0.52686322 -1.293937
-0.93860972 0.52737188 -1.289686
-1.301304 0.5458613 -1.287146
-1.2588561 0.55201638 -1.297174
-1.200713 0.5573011 -1.292363
-1.1112731 0.54484493 -1.29318
-1.069627 0.54826307 -1.29931
-0.96894872 0.54441828 -1.28637
-1.1497639 0.56371647 -1.293316
-1.060109 0.56644893 -1.29931
-1.011078 0.56808943 -1.2971489
-0.96284127 0.56812388 -1.293937
-0.91548479 0.56656581 -1.289686
-0.87953949 0.57040292 -1.299981
-2.0925469 0.59442657 -1.291821
-1.389962 0.58305103 -1.283923
-1.194998 0.58589423 -1.299349
-1.139544 0.58410048 -1.293316
-1.041958 0.58543968 -1.2919689
-0.99882972 0.58935881 -1.2971489
-0.95063567 0.58831948 -1.293937
-0.90329307 0.5858078 -1.289686
-0.86202419 0.58544153 -1.292197
-1.333644 0.61899978 -1.296084
-1.2342089 0.60511887 -1.297174
-1.129403 0.60347509 -1.293316
-1.023487 0.60390788 -1.284628
-0.98616779 0.6103093 -1.2971489
-0.93797588 0.60830039 -1.293937
-0.89063799 0.60487461 -1.289686
-0.87699169 0.61338162 -1.28201
-1.173836 0.62721688 -1.299349
-1.1163729 0.62725103 -1.293316
-1.0659291 0.62895077 -1.29318
-1.016287 0.62894922 -1.2919689
-0.97303492 0.631037 -1.2971489
-0.92483479 0.6280992 -1.293937
-0.86903572 0.63552052 -1.289686
-1.381017 0.64098752 -1.296891
-1.32016 0.64725971 -1.296084
-1.212353 0.64779758 -1.297174
-1.154055 0.64842331 -1.292363
-1.102849 0.65073562 -1.293316
-1.002753 0.65030992 -1.2919689
-0.95940262 0.65157592 -1.2971489
-0.902403 0.65992188 -1.293937
-0.84811008 0.65273321 -1.28201
-1.3084249 0.67066473 -1.296084
-1.198366 0.67331982 -1.297174
-1.140075 0.67270052 -1.292363
-1.088869 0.67386788 -1.293316
-1.038401 0.67342889 -1.29318
-0.98870438 0.67147613 -1.2919689
-0.95035958 0.66469628 -1.2971489
-0.84133011 0.67176861 -1.289686
-1.414344 0.69343722 -1.296293
-1.296782 0.69291061 -1.296084
-1.236702 0.69485968 -1.293885
-1.183849 0.69852912 -1.297174
-1.125623 0.69661373 -1.292363
-1.074368 0.6967541 -1.293316
-1.023854 0.69534749 -1.29318
-0.97938508 0.6849972 -1.2919689
-0.93613237 0.68458802 -1.2971489
-0.88594753 0.68185413 -1.293937
-0.86852467 0.69348252 -1.28637
-0.83187318 0.69349557 -1.297363
-1.059316 0.71943188 -1.293316
-1.014203 0.70934927 -1.29318
-0.96472341 0.70549637 -1.2919689
-0.91007042 0.71340787 -1.2934215
-0.85870242 0.71586192 -1.293937
-0.81698382 0.71097589 -1.297363
-1.281821 0.72021019 -1.296084
-1.168841 0.72336042 -1.297174
-1.1106319 0.72027242 -1.292363
-1.049332 0.73391873 -1.293316
-0.99901998 0.73057729 -1.29318
-0.95251298 0.73308498 -1.29931
-0.80011749 0.72036189 -1.289686
-1.153276 0.74792761 -1.297174
-1.100992 0.7477358 -1.299349
-1.033623 0.75588202 -1.293316
-0.92866057 0.74149859 -1.284628
-0.89079839 0.74261892 -1.2971489
-0.82598001 0.74364638 -1.28637
-1.137118 0.77227098 -1.297174
-1.090614 0.76279253 -1.299349
-0.92322081 0.76964802 -1.29931
-0.87485421 0.76133728 -1.2971489
-0.85693979 0.77152008 -1.289694
-0.8100698 0.76094669 -1.28637
-0.79363328 0.77807403 -1.28637
-1.1264 0.78782183 -1.297174
-1.068512 0.78139597 -1.292363
-1.0077219 0.78999925 -1.293316
-0.90157372 0.78458989 -1.2919689
-0.84043318 0.78946882 -1.289694
-0.78422058 0.79675978 -1.293937
-1.23359 0.80001372 -1.296084
-1.109537 0.81139809 -1.297174
-1.054698 0.81172961 -1.299349
-0.98356742 0.8199563 -1.293316
-0.93362528 0.8124826 -1.29318
-0.89326352 0.80422312 -1.29931
-0.86615843 0.81363398 -1.284628
-0.82338071 0.8072381 -1.289694
-0.80418158 0.81704003 -1.282239
-1.216308 0.82605243 -1.296084
-1.089305 0.8383646 -1.297174
-1.034446 0.82596439 -1.292363
-0.91979349 0.82810873 -1.29318
-0.85343289 0.8367011 -1.2919689
-0.78954959 0.83118832 -1.282239
-1.204843 0.84268612 -1.296084
-1.074165 0.8576777 -1.297174
-1.0222631 0.85221487 -1.299349
-0.96596283 0.84062421 -1.293316
-0.95165199 0.8567915 -1.293316
-0.8383792 0.85178441 -1.2919689
-1.186806 0.86790431 -1.296084
-1.003966 0.87369603 -1.299349
-0.93332112 0.87672389 -1.293316
-0.823125 0.86653429 -1.2919689
-0.76250857 0.87383348 -1.2971489
-1.1651649 0.89674878 -1.296084
-1.055806 0.88017839 -1.297174
-0.98377413 0.88571173 -1.292363
-0.91438383 0.89645708 -1.293316
-0.85238773 0.89734018 -1.29318
-0.80515271 0.88325852 -1.2919689
-0.78133208 0.89540529 -1.284628
-1.14897 0.91740692 -1.296084
-1.029228 0.91104162 -1.297174
-0.97003978 0.91121602 -1.299349
-0.89825511 0.91261768 -1.293316
-0.83377641 0.9146589 -1.29318
-0.76264292 0.91137612 -1.284628
-1.271477 0.92982328 -1.296293
-1.206553 0.92860252 -1.296891
-1.07008 0.93123138 -1.293885
-0.9503575 0.9317255 -1.299349
-0.87706578 0.92331982 -1.2862099
-0.8137325 0.93253613 -1.29318
-0.74331081 0.92721069 -1.284628
-0.12884051 0.93082708 -1.294975
-1.129333 0.9414745 -1.296084
-1.054227 0.94914132 -1.293885
-1.001869 0.94111538 -1.297174
-0.92857492 0.94342232 -1.292363
-0.86265558 0.94633949 -1.293316
-0.83729148 0.95953459 -1.2862099
-0.79426831 0.9491691 -1.29318
-0.73184139 0.95346868 -1.29931
-1.248291 0.96072549 -1.296293
-0.98154122 0.96229792 -1.297174
-0.96422791 0.97964537 -1.297174
-0.91660762 0.96494681 -1.299349
-0.81726372 0.97664922 -1.2862099
-0.76980972 0.96026558 -1.285956
-0.7493673 0.97630203 -1.285956
-1.148517 0.99949068 -1.296891
-1.092688 0.9837687 -1.296084
-1.012941 0.9930824 -1.293885
-0.94668388 0.99660927 -1.297174
-0.89659411 0.9835704 -1.299349
-0.73991221 0.99212599 -1.29318
-1.07164 1.006655 -1.296084
-0.99507409 1.010985 -1.293885
-0.92601383 1.015844 -1.297174
-0.87504011 1.002794 -1.299349
-0.84951741 1.015193 -1.292363
-0.77967852 1.015793 -1.293316
-0.71877551 1.007545 -1.29318
-1.188247 1.034066 -1.296293
-1.049896 1.029313 -1.296084
-0.97696888 1.028491 -1.293885
-0.90375239 1.035699 -1.297174
-0.82798308 1.032831 -1.292363
-0.76133388 1.0208499 -1.2862099
-0.73958528 1.036715 -1.2862099
0.1085116 1.030053 -1.284412
0.1226901 1.028461 -1.284412
0.14444099 1.025632 -1.284412
-1.031377 1.047868 -1.296084
-0.88213497 1.054172 -1.297174
-0.81035262 1.055756 -1.299349
-0.71318072 1.055053 -1.2862099
-2.2003341 1.078799 -1.291365
-1.08719 1.0658751 -1.296891
-1.012612 1.0660141 -1.296084
-0.93266398 1.068831 -1.293885
-0.85977387 1.072487 -1.297174
-0.79138029 1.061138 -1.292363
-0.7646178 1.071804 -1.285378
-0.69489199 1.067187 -1.2862099
-0.61610937 1.073403 -1.29318
-0.99050188 1.086588 -1.296084
-0.83251423 1.0846291 -1.29031
-0.74132657 1.096691 -1.292363
-0.67229372 1.081566 -1.2862099
-0.58995342 1.087998 -1.29318
-1.431114 1.101432 -1.291185
-1.274593 1.109208 -1.296908
-1.124799 1.102747 -1.296293
-1.048581 1.10388 -1.296891
-0.9666903 1.107825 -1.296084
-0.82176572 1.101881 -1.297174
-0.79406703 1.113084 -1.29031
-0.72231621 1.109304 -1.292363
-0.69504857 1.118173 -1.285378
-0.63744932 1.110582 -1.293316
-0.52006578 1.115459 -1.285956
0.070360258 1.10919 -1.28637
-1.835139 1.135712 -1.2816091
-1.104959 1.122627 -1.296293
-1.025686 1.125185 -1.296891
-0.93875319 1.121832 -1.289471
-0.86371672 1.12528 -1.293885
-0.84363753 1.1312079 -1.287146
-0.76571721 1.132774 -1.29031
-0.67452967 1.138994 -1.292363
-0.2018262 1.128507 -1.282239
-0.1789014 1.139115 -1.289694
-0.1331789 1.138651 -1.282239
0.13579831 1.138342 -1.282239
0.18748391 1.130978 -1.282239
0.2315823 1.122779 -1.282239
-1.084854 1.142066 -1.296293
-1.0010279 1.147177 -1.296891
-0.919649 1.147176 -1.296084
-0.82382852 1.154803 -1.293885
-0.74608141 1.145802 -1.29031
-0.71797878 1.155063 -1.283447
-0.65896583 1.148068 -1.292363
-0.62757963 1.157388 -1.285378
-0.56228709 1.142627 -1.2862099
-0.53812897 1.154201 -1.2862099
-0.1130773 1.140823 -1.282239
-0.089865632 1.142885 -1.282239
-0.020685431 1.146226 -1.282239
-0.001068983 1.146412 -1.282239
0.023332341 1.146175 -1.282239
0.047556229 1.145426 -1.282239
0.072575577 1.1441129 -1.282239
0.096060991 1.142381 -1.282239
-1.061167 1.164108 -1.296293
-0.89066011 1.160383 -1.289471
-0.87450922 1.172603 -1.289471
-0.79441619 1.17523 -1.293885
-0.69672263 1.176468 -1.29031
-0.602759 1.170507 -1.285378
-0.51854932 1.163129 -1.2862099
-0.25354341 1.161011 -1.284628
-0.2376751 1.164363 -1.284628
-1.035657 1.186861 -1.296293
-0.95231611 1.187925 -1.296891
-0.8538841 1.196933 -1.296084
-0.77404451 1.188746 -1.293885
-0.74497157 1.198488 -1.287146
-0.6806466 1.185841 -1.29031
-0.58447802 1.187721 -1.292363
-0.55936652 1.199752 -1.292363
-0.4965041 1.180346 -1.293316
-0.46901 1.183974 -1.2862099
-0.4436264 1.193717 -1.2862099
-0.33853391 1.1832629 -1.285956
-0.067913927 1.1864311 -1.284628
-0.042748071 1.187604 -1.284628
-1.010884 1.20803 -1.296293
-0.92702723 1.207764 -1.296891
-0.81919777 1.2118911 -1.289471
-0.65175068 1.201965 -1.29031
-0.62597418 1.215589 -1.29031
-0.53901398 1.209033 -1.292363
-0.42041409 1.2095391 -1.293316
-0.4039889 1.215124 -1.293316
-0.37600371 1.216711 -1.2862099
-0.26258221 1.202401 -1.285956
-0.1909505 1.215835 -1.285956
-1.070554 1.226853 -1.294273
-0.91021693 1.220482 -1.296891
-0.88421518 1.23945 -1.296891
-0.80228382 1.232115 -1.296084
-0.72283572 1.220562 -1.293885
-0.7024793 1.223879 -1.287146
-0.60370809 1.226799 -1.29031
-0.57777029 1.239226 -1.29031
-0.51326311 1.220188 -1.292363
-0.48488441 1.2240469 -1.285378
-0.45864159 1.23412 -1.285378
-0.3522273 1.231125 -1.293316
-0.3239986 1.23158 -1.2862099
-1.2286969 1.248343 -1.297823
-0.95909578 1.249544 -1.296293
-0.77223277 1.242345 -1.289471
-0.6726566 1.24052 -1.287146
-0.64605308 1.25458 -1.287146
-0.55674827 1.248812 -1.29031
-0.52733022 1.253629 -1.283447
-0.43225551 1.243607 -1.285378
-0.41536781 1.249349 -1.285378
-0.3887302 1.257892 -1.285378
-0.27170229 1.244163 -1.2862099
-0.2546975 1.2477551 -1.2862099
-0.22419719 1.253595 -1.2862099
-1.1109149 1.273106 -1.296908
-0.94170398 1.2627029 -1.296293
-0.91031849 1.27604 -1.289939
-0.85264701 1.261374 -1.296891
-0.83078188 1.275882 -1.296891
-0.74920678 1.2650909 -1.296084
-0.73191983 1.275171 -1.296084
-0.62307292 1.26615 -1.287146
-0.5008812 1.264429 -1.283447
-0.3349649 1.273265 -1.285378
-0.19867431 1.265015 -1.293316
-0.1746048 1.261458 -1.2862099
-0.1256112 1.267275 -1.2862099
-0.099826619 1.2695661 -1.2862099
-0.99141347 1.291648 -1.294273
-0.80376428 1.293072 -1.296891
-0.69727153 1.285915 -1.289471
-0.59942508 1.2856719 -1.293885
-0.57460678 1.288869 -1.287146
-0.4763062 1.281652 -1.29031
-0.4489038 1.291505 -1.29031
-0.43136561 1.2974679 -1.29031
-0.3079125 1.280076 -1.285378
-1.151634 1.3197711 -1.297823
-1.056855 1.318328 -1.296908
-0.8821426 1.305009 -1.296293
-0.85530782 1.313547 -1.289939
-0.77581972 1.310029 -1.296891
-0.75412887 1.313864 -1.2904069
-0.6731289 1.3071589 -1.296084
-0.64918548 1.319214 -1.296084
-0.54715538 1.30076 -1.287146
-0.51971209 1.3119659 -1.287146
-0.3740958 1.307561 -1.283447
-0.34601569 1.315271 -1.283447
-0.83156902 1.337803 -1.296293
-0.72574222 1.338421 -1.296891
-0.61812401 1.325778 -1.289471
-0.59563369 1.336033 -1.289471
-0.49158439 1.322763 -1.287146
-0.463303 1.332932 -1.287146
-0.3180708 1.322307 -1.283447
-0.2901656 1.328709 -1.283447
-0.2720052 1.332545 -1.283447
-0.23943231 1.338781 -1.283447
-1.124087 1.343311 -1.297823
-1.010134 1.354459 -1.296908
-0.78950822 1.354076 -1.289939
-0.6935541 1.346823 -1.2904069
-0.66888422 1.359244 -1.2904069
-0.56717777 1.3483599 -1.289471
-0.5387302 1.3599761 -1.289471
-0.44753319 1.346097 -1.293885
-0.4166514 1.348243 -1.287146
-0.38816011 1.35672 -1.287146
-0.2110092 1.343555 -1.283447
-0.1864699 1.34718 -1.283447
-0.048922669 1.359143 -1.283447
0.02767984 1.359742 -1.283447
-1.095593 1.36665 -1.297823
-0.98127842 1.375508 -1.296908
-0.74716723 1.377933 -1.289939
-0.6401462 1.3730119 -1.2904069
-0.50957322 1.3711669 -1.289471
-0.35902429 1.364719 -1.287146
-0.3300288 1.3720191 -1.287146
-0.30107459 1.378662 -1.287146
-0.71761692 1.393551 -1.289939
-0.61685473 1.383633 -1.2904069
-0.48271981 1.3887939 -1.296084
-0.45912719 1.38097 -1.282858
-0.43189821 1.39758 -1.289471
-0.28223139 1.382643 -1.287146
-0.2471332 1.3818409 -1.280407
-0.21779589 1.386767 -1.280407
-0.19246741 1.390509 -1.280407
-0.1630756 1.394262 -1.280407
-0.1384615 1.396921 -1.280407
-0.1100392 1.399446 -1.280407
0.1957622 1.390049 -1.280407
-1.04716 1.404106 -1.297823
-0.82970393 1.401017 -1.294273
-0.81055951 1.412179 -1.294273
-0.69209099 1.4064029 -1.289939
-0.59033662 1.403415 -1.296891
-0.55792391 1.408428 -1.2904069
-0.40236431 1.4063669 -1.289471
-0.37216231 1.414659 -1.289471
-0.050496168 1.402858 -1.280407
-1.104517 1.439003 -1.297001
-0.77614838 1.431381 -1.294273
-0.66235602 1.4206491 -1.289939
-0.63825637 1.431638 -1.289939
-0.53037989 1.4271539 -1.296891
-0.49736729 1.430935 -1.2904069
-0.4779357 1.437542 -1.2904069
-0.34210569 1.422227 -1.289471
-0.31209189 1.429113 -1.289471
-0.2925593 1.433239 -1.289471
-0.257525 1.4399461 -1.289471
-1.084488 1.454157 -1.297001
-0.86098403 1.453835 -1.296908
-0.74545193 1.4476039 -1.294273
-0.61075813 1.451964 -1.296293
-0.57728088 1.457294 -1.289939
-0.44728571 1.447372 -1.2904069
-0.4166995 1.456472 -1.2904069
-0.2269541 1.44508 -1.289471
-0.199532 1.441548 -1.282858
-0.16906141 1.445439 -1.282858
-0.1140782 1.450814 -1.282858
-0.083167993 1.452914 -1.282858
-1.053508 1.476756 -1.297001
-0.8411178 1.4654191 -1.296908
-0.71893603 1.460954 -1.294273
-0.68804753 1.4757529 -1.294273
-0.5460375 1.469286 -1.289939
-0.38542151 1.46506 -1.2904069
-0.35429409 1.4728971 -1.2904069
-0.32158679 1.472591 -1.283923
-0.30145991 1.476843 -1.283923
-0.92469162 1.4876159 -1.297823
-0.80540937 1.4853441 -1.296908
-0.6630131 1.487168 -1.294273
-0.5146234 1.480581 -1.289939
-0.4969537 1.494745 -1.296293
-0.4628042 1.497588 -1.289939
-0.26535979 1.483754 -1.283923
-0.23385879 1.489044 -1.283923
-0.20666219 1.493062 -1.283923
-0.1751027 1.4970911 -1.283923
-1.015896 1.502879 -1.297001
-0.87194818 1.519132 -1.297823
-0.77355558 1.502179 -1.296908
-0.74603999 1.5160331 -1.296908
-0.63133818 1.5008889 -1.294273
-0.59678948 1.506541 -1.288051
-0.4332808 1.514428 -1.296293
-0.3987937 1.51589 -1.289939
-0.1181548 1.502658 -1.283923
-0.98984432 1.5201631 -1.297001
-0.831101 1.532725 -1.291869
-0.71398711 1.531389 -1.296908
-0.56721717 1.5262769 -1.294273
-0.53458458 1.53801 -1.294273
-0.51122928 1.537683 -1.288051
-0.3665863 1.523999 -1.289939
-0.33442479 1.531378 -1.289939
-0.31349441 1.535799 -1.289939
-0.27459371 1.535386 -1.283584
-0.95765388 1.540645 -1.297001
-0.79823112 1.550097 -1.291869
-0.6880089 1.5432349 -1.296908
-0.6551398 1.5574729 -1.296908
-0.47844419 1.548198 -1.288051
-0.44572741 1.557932 -1.288051
-0.2419966 1.5408601 -1.283584
-0.2138536 1.545017 -1.283584
-0.1811959 1.5491869 -1.283584
-0.1538468 1.552141 -1.283584
-0.1222663 1.554948 -1.283584
-0.92435879 1.560849 -1.297001
-0.9030304 1.573284 -1.297001
-0.77338552 1.571601 -1.297823
-0.62228042 1.570891 -1.296908
-0.41227049 1.567118 -1.288051
-0.37897471 1.575501 -1.288051
-0.34405619 1.5754811 -1.281829
-0.08957874 1.564907 -1.289939
-0.86469358 1.594676 -1.297001
-0.73676252 1.5802391 -1.291869
-0.70995551 1.5924619 -1.291869
-0.58860153 1.583818 -1.296908
-0.55473858 1.595994 -1.296908
-0.53056288 1.595835 -1.290819
-0.32252291 1.58003 -1.281829
-0.2839005 1.587424 -1.281829
-0.25019851 1.593084 -1.281829
-0.83049518 1.612751 -1.297001
-0.67603803 1.607155 -1.291869
-0.49653801 1.606747 -1.290819
-0.4625839 1.61685 -1.290819
-0.1873372 1.601693 -1.281829
-0.15906119 1.604748 -1.281829
-0.80095422 1.627624 -1.297001
-0.76310462 1.6367379 -1.291185
-0.64508951 1.6284699 -1.297823
-0.4298799 1.634055 -1.296908
-0.39145151 1.62737 -1.28473
-0.3571085 1.63525 -1.28473
-0.3347584 1.639971 -1.28473
-0.73533922 1.649399 -1.291185
-0.61017609 1.641871 -1.297823
-0.57243413 1.646904 -1.291869
-0.55006969 1.654508 -1.291869
-0.51242143 1.658145 -1.285916
-0.2960673 1.655455 -1.290819
-0.25969031 1.65352 -1.28473
-0.22948959 1.657982 -1.28473
-0.70336312 1.672115 -1.297001
-0.4773812 1.66857 -1.285916
-0.66808492 1.68652 -1.297001
-0.62909323 1.6927741 -1.291185
-0.44359249 1.686179 -1.291869
-0.40776721 1.695199 -1.291869
-0.37027851 1.695557 -1.285916
-0.59557158 1.7134711 -1.297001
-0.5671705 1.7059439 -1.285369
-0.3471041 1.700452 -1.285916
-0.30553809 1.708411 -1.285916
-0.2692675 1.714501 -1.285916
-0.53319973 1.725381 -1.291185
-0.49673861 1.7362289 -1.291185
-0.4573831 1.7385989 -1.285369
-0.2016152 1.723766 -1.285916
-0.69125152 1.745002 -1.294426
-0.42234641 1.7558089 -1.291185
-0.38355741 1.756363 -1.285369
-0.82340068 1.766064 -1.295619
-0.79344147 1.779725 -1.295619
-0.35955191 1.761434 -1.285369
-0.31649521 1.769677 -1.285369
-0.2789239 1.775987 -1.285369
-0.75553542 1.796145 -1.295619
-0.59214842 1.781073 -1.294426
-0.55417389 1.793252 -1.294426
-0.2464865 1.7807781 -1.285369
-0.2088455 1.785584 -1.285369
-1.071124 1.808673 -1.297033
-0.89225292 1.813153 -1.294744
-0.71764052 1.811619 -1.295619
-0.51627862 1.804527 -1.294426
-0.47752601 1.815166 -1.294426
-1.046409 1.823083 -1.297033
-0.43896019 1.824877 -1.294426
-0.3986927 1.82567 -1.288749
-0.37373999 1.830941 -1.288749
-0.32898429 1.839509 -1.288749
-0.61212713 1.8411649 -1.290082
-0.57287133 1.853755 -1.290082
-0.2899304 1.846068 -1.288749
-0.25508431 1.842894 -1.283072
-0.2161303 1.847868 -1.283072
-0.18350831 1.851392 -1.283072
-0.1458391 1.854739 -1.283072
-0.9623574 1.868816 -1.297033
-0.53369743 1.86541 -1.290082
-0.49363741 1.8764091 -1.290082
-0.0335695 1.8601609 -1.283072
0.03786505 1.8600791 -1.283072
-0.92812598 1.8860511 -1.297033
-0.4557178 1.8945431 -1.295619
-0.41395989 1.8955801 -1.290082
-0.88824999 1.905156 -1.297033
-0.85593122 1.919893 -1.297033
-0.38805169 1.901053 -1.290082
-0.34158209 1.90995 -1.290082
-0.29974079 1.908533 -1.284546
-0.2244321 1.918847 -1.284546
-1.196475 1.924853 -1.2944061
-0.81503981 1.937606 -1.297033
-0.59665328 1.930711 -1.294744
-0.2660242 1.921931 -1.290082
-0.19055711 1.922506 -1.284546
-0.1514409 1.925982 -1.284546
-0.069495149 1.9306771 -1.284546
-0.0018014431 1.931926 -1.284546
0.0393195 1.931527 -1.284546
-0.99984759 1.941619 -1.296927
-0.96428269 1.959525 -1.296927
-0.77416039 1.954298 -1.297033
-0.55585313 1.94285 -1.294744
-0.51413012 1.9543051 -1.294744
-0.47063881 1.956573 -1.289349
-1.585353 1.97758 -1.281184
-0.92285317 1.9793741 -1.296927
-0.73226148 1.9703799 -1.297033
-0.43114489 1.974273 -1.294744
-0.40247709 1.971723 -1.289349
-0.69013381 1.985528 -1.297033
-0.66317087 1.9946949 -1.297033
-0.35428011 1.98095 -1.289349
-0.31222329 1.988013 -1.289349
-0.23377851 1.9987561 -1.289349
-0.84679103 2.013088 -1.296927
-0.62064183 2.0083351 -1.297033
-0.27706781 2.0017171 -1.294744
-0.1984928 2.002568 -1.289349
-0.1577476 2.0061891 -1.289349
-0.1150049 2.009093 -1.289349
-0.072086357 2.0026641 -1.283954
-0.0018764629 2.0123811 -1.289349
-2.251888 2.02742 -1.281666
-0.80431908 2.030431 -1.296927
-0.57820129 2.020962 -1.297033
-0.53480071 2.0328779 -1.297033
-0.48762849 2.027204 -1.286531
-0.7607879 2.0471399 -1.296927
-0.44666341 2.0453341 -1.291782
-0.41870841 2.051239 -1.291782
-0.36706939 2.0524621 -1.286531
-0.3234944 2.0597789 -1.286531
-0.71701902 2.0628769 -1.296927
-0.68900591 2.072402 -1.296927
-0.2870405 2.073766 -1.291782
-0.2432064 2.0793631 -1.291782
-0.2056583 2.0748601 -1.286531
-0.037467871 2.076179 -1.281279
0.1314574 2.0723519 -1.281279
-1.6775301 2.092562 -1.299029
-0.64481992 2.0865729 -1.296927
-0.60072613 2.0996921 -1.296927
-0.16410939 2.087095 -1.291782
-0.1191565 2.08162 -1.286531
-0.075002447 2.083678 -1.286531
-0.83789098 2.11518 -1.299366
-0.55563468 2.112072 -1.296927
-0.79254282 2.132586 -1.299366
-0.51076072 2.1233709 -1.296927
-0.46595031 2.133652 -1.296927
-0.4367882 2.139812 -1.296927
0.30096379 2.137054 -1.2816091
-1.402511 2.153919 -1.299229
-0.74694711 2.1489811 -1.299366
-0.71776462 2.1589029 -1.299366
-0.38448241 2.149826 -1.296927
-0.33750629 2.1489971 -1.291821
-0.29825601 2.1547949 -1.291821
0.2260996 2.146266 -1.2816091
0.25666109 2.151485 -1.286715
-0.67173439 2.173666 -1.299366
-0.25370809 2.1691501 -1.296927
-0.2154143 2.1732869 -1.296927
-0.1711956 2.177217 -1.296927
-0.077941827 2.165338 -1.286715
-0.03925097 2.174984 -1.291821
0.089882113 2.164875 -1.286715
-0.62580007 2.1873319 -1.299366
-0.57661742 2.1918311 -1.2944061
-1.49692 2.214489 -1.29467
-1.443801 2.2173319 -1.281592
-1.0280451 2.204993 -1.282041
-0.53004873 2.2035561 -1.2944061
-0.4835462 2.214226 -1.2944061
-0.4532828 2.220618 -1.2944061
-0.39747301 2.2224629 -1.2894469
-0.35028881 2.230386 -1.2894469
-0.31074259 2.2450061 -1.2944061
-0.26429769 2.2596891 -1.299366
-0.22354899 2.255358 -1.2944061
-0.1769798 2.2507789 -1.2894469
-0.129026 2.2540359 -1.2894469
-0.081214763 2.2562649 -1.2894469
-2.2575901 2.2936881 -1.297376
-0.55356008 2.3013 -1.299073
-0.50499493 2.3124421 -1.299073
-0.47338909 2.319119 -1.299073
-0.4167003 2.329972 -1.299073
-0.3672336 2.338279 -1.299073
-0.32332429 2.3359039 -1.2942621
-0.2308709 2.3292279 -1.284639
-0.2739493 2.3422079 -1.2942621
-0.1841667 2.3421791 -1.28945
-0.1342655 2.3455679 -1.28945
-0.08451274 2.347888 -1.28945
-0.042391811 2.349025 -1.28945
-0.3815808 2.4296319 -1.2960269
-0.3372049 2.436187 -1.2960269
0.15401711 2.4279931 -1.282041
0.2038569 2.4243169 -1.282041
0.2558088 2.428283 -1.286703
-0.28571019 2.4427609 -1.2960269
-0.24258611 2.4474199 -1.2960269
-0.19278979 2.4518449 -1.2960269
-0.1400466 2.4465621 -1.291365
-0.088151611 2.448981 -1.291365
-0.044057451 2.4413221 -1.286703
-0.002285053 2.4505661 -1.291365
0.049875092 2.4500589 -1.291365
-1.2668411 2.460098 -1.282784
-0.60111833 2.499012 -1.299229
0.35346189 2.5098269 -1.281184
-0.4525004 2.530148 -1.299229
0.1604567 2.52951 -1.281184
0.21312819 2.534574 -1.285695
0.2655389 2.5206461 -1.281184
0.30129239 2.5256109 -1.285695
-0.35240731 2.5460191 -1.299229
-0.29859111 2.5528901 -1.299229
-0.25352281 2.557759 -1.299229
-0.2007819 2.5534861 -1.294718
-0.1458687 2.5482719 -1.290207
-0.092137352 2.55971 -1.294718
-0.046055309 2.5520279 -1.290207
-0.0023800491 2.5524421 -1.290207
0.051766898 2.5429921 -1.285695
0.1055119 2.5413289 -1.285695
0.31449351 2.636271 -1.285951
0.36899289 2.6201079 -1.281592
0.1680769 2.6496379 -1.285951
-0.31156379 2.6638041 -1.299029
-0.26453739 2.668885 -1.299029
-0.2102351 2.6737101 -1.299029
-0.1532706 2.6775789 -1.299029
-0.096151643 2.6712329 -1.29467
-0.048067529 2.6635289 -1.290311
-0.0024840371 2.6639619 -1.290311
0.05421824 2.6634109 -1.290311
0.1105082 2.66167 -1.290311
-0.95152152 2.737545 -1.284271
-0.55886912 2.7378831 -1.295401
-0.49034679 2.741765 -1.291195
-0.4307299 2.7425771 -1.286989
-0.37939429 2.7409899 -1.282784
0.3871544 2.7490671 -1.286989
-0.68422037 2.8444901 -1.296425
0.40544319 2.878931 -1.288322
0.42512971 3.018719 -1.289458
-1.424296 3.054889 -1.292724
-1.361068 3.0529361 -1.281981
-1.012422 3.045177 -1.293637
6.2440839 7.704803 -1.2835211
-2.171138 -1.448472 -1.264156
-1.339426 -1.444973 -1.262375
-1.230409 -1.4459749 -1.262398
-1.129509 -1.447153 -1.26604
-1.051169 -1.448374 -1.2795531
-0.92029369 -1.452432 -1.274009
-0.8864243 -1.454561 -1.262103
-0.80657578 -1.448498 -1.272552
-0.66255748 -1.453025 -1.269384
-2.22399 -1.416842 -1.277233
-0.62220091 -1.364521 -1.277438
-0.59436297 -1.368579 -1.270954
-0.43464401 -1.365271 -1.26302
-0.40558809 -1.3741831 -1.26302
-0.65080512 -1.351112 -1.277438
-0.70220357 -1.325127 -1.277438
-0.68029249 -1.336508 -1.277438
-0.57672387 -1.327963 -1.276246
-0.72959262 -1.3102469 -1.277438
-0.62828529 -1.30436 -1.276246
-0.60067087 -1.317305 -1.276246
-0.75728887 -1.294436 -1.277438
-0.55624378 -1.2808059 -1.2736681
-0.7043466 -1.264908 -1.276246
-0.67790532 -1.279274 -1.276246
-0.5793404 -1.2705261 -1.2736681
-0.26966131 -1.266737 -1.26442
-0.82880998 -1.24985 -1.277438
-0.63343042 -1.244442 -1.2736681
-0.6059742 -1.258041 -1.2736681
-0.53886497 -1.24079 -1.276584
-0.36864379 -1.249011 -1.2714061
-0.85502392 -1.232066 -1.277438
-0.65383208 -1.233845 -1.2736681
-0.39288241 -1.234092 -1.26442
-0.26076129 -1.22493 -1.264892
-0.23441219 -1.230244 -1.264892
-0.20833351 -1.234928 -1.264892
-0.70512289 -1.205269 -1.2736681
-0.67933452 -1.21999 -1.2736681
-0.61364013 -1.205562 -1.276584
-0.58704168 -1.218735 -1.276584
-0.55520523 -1.2175961 -1.262857
-0.63340431 -1.195296 -1.276584
-0.54326802 -1.191417 -1.278392
-0.51590878 -1.1879309 -1.26442
-0.68309271 -1.167612 -1.276584
-0.59399009 -1.166957 -1.278392
-0.56513828 -1.173263 -1.2714061
-0.34643561 -1.173766 -1.2787319
-0.31791911 -1.167483 -1.2642829
-0.2211612 -1.1607 -1.277287
-0.1760731 -1.161522 -1.2699471
-0.1520652 -1.1649081 -1.2699471
-0.72402781 -1.14268 -1.276584
-0.63703591 -1.1440279 -1.278392
-0.61312139 -1.15702 -1.278392
-0.54959017 -1.1409841 -1.279104
-0.52543461 -1.152307 -1.279104
-0.50168419 -1.155177 -1.271998
-0.4178974 -1.142905 -1.271507
-0.39357701 -1.1515059 -1.271507
-0.36915639 -1.159566 -1.271507
-0.2859239 -1.146466 -1.277287
-0.244607 -1.149044 -1.2699471
-0.1942974 -1.151727 -1.262606
0.1777615 -1.154395 -1.262606
0.2458206 -1.14184 -1.262606
-0.7476064 -1.127395 -1.276584
-0.66121858 -1.130223 -1.278392
-0.57449162 -1.128651 -1.279104
-0.43121681 -1.130549 -1.2642829
-0.3344779 -1.133253 -1.277287
-0.30866939 -1.133516 -1.2699471
-0.26354891 -1.137879 -1.262606
-0.1698219 -1.120284 -1.267329
-0.14666639 -1.1235501 -1.267329
0.26618329 -1.137265 -1.262606
-0.77125192 -1.111353 -1.276584
-0.70084298 -1.106089 -1.278392
-0.67769468 -1.1120501 -1.2714061
-0.61612439 -1.106474 -1.279104
-0.59299499 -1.11904 -1.279104
-0.53109258 -1.102582 -1.2787319
-0.50774997 -1.113524 -1.2787319
-0.48475319 -1.116192 -1.271507
-0.40576571 -1.109726 -1.277287
-0.37995499 -1.111652 -1.2699471
-0.3563796 -1.119432 -1.2699471
-0.2359226 -1.1082489 -1.267329
-0.21208329 -1.113057 -1.267329
-0.18848871 -1.117295 -1.267329
-0.72366649 -1.091293 -1.278392
-0.65904999 -1.0814559 -1.279104
-0.63951331 -1.093122 -1.279104
-0.57303661 -1.081376 -1.2787319
-0.55515587 -1.090664 -1.2787319
-0.41867089 -1.097657 -1.2699471
-0.34574881 -1.08604 -1.274784
-0.3226355 -1.093129 -1.274784
-0.2977106 -1.093272 -1.267329
-0.27418771 -1.099408 -1.267329
-0.1413236 -1.082621 -1.263669
-1.264008 -1.072844 -1.272552
-0.90492982 -1.063472 -1.2736681
-0.74655491 -1.075765 -1.278392
-0.67407119 -1.0638371 -1.271998
-0.59538752 -1.0692329 -1.2787319
-0.51276129 -1.064525 -1.277287
-0.49022439 -1.075089 -1.277287
-0.4679755 -1.077559 -1.2699471
-0.40618199 -1.064914 -1.274784
-0.39139929 -1.070435 -1.274784
-0.2463562 -1.0636491 -1.263669
-0.2273283 -1.067878 -1.263669
-0.2043575 -1.07251 -1.263669
-0.1816224 -1.076594 -1.263669
-0.16363551 -1.079474 -1.263669
-0.7914257 -1.043197 -1.278392
-0.76912087 -1.059749 -1.278392
-0.72204828 -1.040452 -1.279104
-0.69991118 -1.05547 -1.279104
-0.6368683 -1.0450571 -1.2787319
-0.61798918 -1.056331 -1.2787319
-0.55325752 -1.0440511 -1.277287
-0.45401579 -1.045416 -1.274784
-0.35734451 -1.045499 -1.278803
-0.33318871 -1.046587 -1.2712359
-0.31091511 -1.053419 -1.2712359
-0.28858319 -1.059754 -1.2712359
-0.2641995 -1.059358 -1.263669
-0.1758979 -1.042661 -1.266656
-0.80566609 -1.032238 -1.278392
-0.57483703 -1.0323271 -1.277287
-0.4728677 -1.037025 -1.274784
-0.3914265 -1.026228 -1.2712359
-0.37942591 -1.037689 -1.278803
-0.2201632 -1.03422 -1.266656
-0.82739598 -1.014904 -1.278392
-0.67635429 -1.019946 -1.2787319
-0.51701689 -1.015735 -1.274784
-0.4584021 -1.005301 -1.278803
-0.43752259 -1.007439 -1.2712359
-0.34198591 -1.000564 -1.266656
-0.32076639 -1.007567 -1.266656
-0.2993232 -1.0141439 -1.266656
-0.132443 -1.014591 -1.268844
-0.71883702 -0.99046397 -1.2787319
-0.65300918 -0.98474163 -1.277287
-0.57553351 -0.98376107 -1.274784
-0.5012008 -0.98466301 -1.278803
-0.47947609 -0.99542248 -1.278803
-0.37107599 -0.99353784 -1.2704945
-0.29142019 -0.98736769 -1.276628
-0.93519711 -0.96732461 -1.26972
-0.82072878 -0.96451932 -1.279104
-0.73968363 -0.97499418 -1.2787319
-0.67366272 -0.97072929 -1.277287
-0.53752232 -0.96531498 -1.278803
-0.51734352 -0.97627813 -1.278803
-0.44135889 -0.96792459 -1.274333
-0.42121041 -0.96987832 -1.266656
-0.3668834 -0.96188211 -1.276628
-0.35137531 -0.96097392 -1.268844
-0.3309263 -0.96820623 -1.268844
-0.31039301 -0.97498292 -1.268844
-0.22321241 -0.96372497 -1.2702399
-0.205972 -0.9675563 -1.2702399
-0.18515921 -0.97175401 -1.2702399
-1.163595 -0.94609672 -1.277438
-0.91014338 -0.94141012 -1.278392
-0.77330208 -0.94855118 -1.2787319
-0.62988901 -0.94987619 -1.274784
-0.57497162 -0.94348878 -1.278803
-0.55792731 -0.95366693 -1.278803
-0.4825663 -0.94805348 -1.274333
-0.46164939 -0.95841312 -1.274333
-0.41008931 -0.94427079 -1.276628
-0.32192951 -0.94188392 -1.2781301
-0.30009049 -0.94262153 -1.2702399
-0.2378926 -0.9538753 -1.262351
-0.97379959 -0.93896139 -1.276584
-0.72700262 -0.93145281 -1.277287
-0.61062002 -0.92081839 -1.278803
-0.59136182 -0.93330312 -1.278803
-0.51753742 -0.929425 -1.274333
-0.49810889 -0.93998039 -1.274333
-0.44675291 -0.92748708 -1.276628
-0.4271172 -0.93669182 -1.276628
-0.35473281 -0.93002611 -1.2781301
-0.81263572 -0.91507852 -1.2787319
-0.7466107 -0.91581082 -1.277287
-0.68886739 -0.90801227 -1.274784
-0.62620538 -0.90234458 -1.2712359
-0.55025941 -0.90293783 -1.266656
-0.53718382 -0.91820991 -1.274333
-0.47304586 -0.91078228 -1.2727361
-0.4104225 -0.90007943 -1.2702399
-0.39406019 -0.90736222 -1.2702399
-0.83197337 -0.89753312 -1.2787319
-0.78458673 -0.88349348 -1.277287
-0.7657305 -0.89988542 -1.277287
-0.70126247 -0.8984741 -1.274784
-0.64897382 -0.89420152 -1.278803
-0.50083762 -0.89943439 -1.276628
-0.3260721 -0.89177239 -1.262861
-0.30709571 -0.89848387 -1.262861
-2.1296639 -0.86015439 -1.260582
-0.80325693 -0.86655372 -1.277287
-0.71596491 -0.8782199 -1.267329
-0.82127893 -0.84949273 -1.277287
-0.85058141 -0.82015133 -1.277287
-0.83907062 -0.8319239 -1.277287
-0.88689202 -0.78074288 -1.277287
-0.87023711 -0.79926479 -1.277287
-0.76796669 -0.79434907 -1.278803
-2.2723041 -0.76457381 -1.263393
-0.77996087 -0.77331769 -1.2712359
-1.113206 -0.74267381 -1.262857
-0.81374693 -0.74738169 -1.278803
-0.76579559 -0.73839879 -1.274333
-0.7909894 -0.71125644 -1.274333
-0.95937461 -0.68973708 -1.277287
-1.009833 -0.61349368 -1.277287
-2.283052 -0.4746713 -1.279828
-1.174286 -0.4742848 -1.279104
-2.266716 -0.42151761 -1.265393
-1.203197 -0.223746 -1.2787319
-1.1042351 0.037793271 -1.278803
-1.4911979 0.051037371 -1.270954
-1.103182 0.061252441 -1.278803
-1.841164 0.1022277 -1.271717
-1.839179 0.13325641 -1.271717
-1.83595 0.1721094 -1.271717
-1.831884 0.2110364 -1.271717
-1.827027 0.2496147 -1.271717
-1.823175 0.27634951 -1.271717
-1.069042 0.27912861 -1.278803
-1.809039 0.3121241 -1.26604
-1.810166 0.35161901 -1.271717
0.81527752 0.49834949 -1.270854
0.79938012 0.51241839 -1.262861
-1.366467 0.59920442 -1.270954
-0.84361112 0.59003472 -1.276628
-0.82084799 0.60028118 -1.26106
0.63382632 0.61504811 -1.261578
-0.83346921 0.72532219 -1.278803
0.69930738 0.7383076 -1.26106
0.71478587 0.72333258 -1.26106
0.91651553 0.72403431 -1.262606
0.68354362 0.75292557 -1.26106
0.74323392 0.75212067 -1.266656
0.89848608 0.74629021 -1.262606
0.60262841 0.77673042 -1.262351
0.65686548 0.77630961 -1.26106
0.67723948 0.76699549 -1.268844
0.58941251 0.78680611 -1.262351
0.64422238 0.7949295 -1.268844
0.7107482 0.78289157 -1.266656
0.55810797 0.80931228 -1.262351
0.57623291 0.80408043 -1.2702399
0.61345798 0.81890452 -1.268844
0.62721312 0.80841768 -1.268844
0.68300831 0.80720621 -1.266656
-2.2571349 0.83413148 -1.268055
0.52722782 0.83703083 -1.2702399
0.54432702 0.82601309 -1.2702399
0.59601557 0.83168548 -1.268844
0.66575241 0.82149613 -1.266656
0.70523632 0.83347613 -1.263669
-0.76782018 0.84230453 -1.274784
0.40319151 0.8596614 -1.262861
0.43039149 0.84631199 -1.262861
0.49141261 0.85146028 -1.262351
0.50920647 0.84093982 -1.262351
0.55956042 0.84912962 -1.26106
0.58087653 0.84232879 -1.268844
0.63395989 0.84627241 -1.266656
0.68741882 0.84823108 -1.263669
0.86836278 0.84263599 -1.2642829
0.37312081 0.87313342 -1.262861
0.38543251 0.86776888 -1.262861
0.45769829 0.87698448 -1.2702399
0.4761104 0.86712658 -1.2702399
0.52998 0.87524658 -1.268844
0.54532808 0.86576712 -1.268844
0.66926903 0.86262357 -1.263669
0.77308202 0.87554008 -1.262606
0.7850948 0.8647846 -1.262606
0.85049629 0.86066568 -1.2642829
0.31675419 0.89512461 -1.262861
0.33569399 0.88819522 -1.262861
0.35656869 0.88650352 -1.270854
0.42957571 0.89103466 -1.2702399
0.4924559 0.89689612 -1.268844
0.51146019 0.88619632 -1.268844
0.56355298 0.89470112 -1.266656
0.58183038 0.88292438 -1.266656
0.61982542 0.89880872 -1.263669
0.63597959 0.88745159 -1.263669
0.75445318 0.89164257 -1.262606
0.81332231 0.8958773 -1.2642829
0.2976934 0.9016428 -1.262861
0.38872939 0.90965879 -1.2702399
0.4015561 0.9040699 -1.2702399
0.45416811 0.91687882 -1.268844
0.47341159 0.90709251 -1.268844
0.52855331 0.91581309 -1.266656
0.547692 0.90449739 -1.266656
0.60076559 0.91165841 -1.263669
0.73966777 0.9127031 -1.2699471
0.33000481 0.9325698 -1.2702399
0.3497369 0.92535061 -1.2702399
0.3714413 0.92347991 -1.2781301
0.415342 0.93510771 -1.268844
0.4371447 0.93205428 -1.276628
0.48923311 0.93740761 -1.266656
0.56551617 0.93393362 -1.263669
0.708125 0.92880988 -1.262606
0.27883199 0.95552951 -1.2781301
0.29606351 0.95033163 -1.2781301
0.31207311 0.94519532 -1.2781301
0.38416421 0.95511168 -1.276628
0.4020749 0.94088852 -1.268844
0.44899949 0.95733052 -1.266656
0.4693464 0.94752097 -1.266656
0.52547598 0.95703471 -1.263669
0.54575461 0.94561738 -1.263669
0.60389233 0.95874399 -1.267329
0.623478 0.94612432 -1.267329
0.68036342 0.94938499 -1.262606
0.1901612 0.97386175 -1.2741849
0.22994429 0.96841973 -1.2781301
0.25844431 0.96124423 -1.2781301
0.30433741 0.97689003 -1.268844
0.3227624 0.97757101 -1.276628
0.34133431 0.96458608 -1.268844
0.3639631 0.96299088 -1.276628
0.41551229 0.97233307 -1.266656
0.42922279 0.96635908 -1.266656
0.4846209 0.97835732 -1.263669
0.50515479 0.96791482 -1.263669
0.64269191 0.97528118 -1.262606
0.66308171 0.96153462 -1.262606
0.72545213 0.96840519 -1.2642829
0.85722142 0.9708308 -1.26442
-0.79214621 0.9881283 -1.279104
0.1179078 0.98837322 -1.2781301
0.1388109 0.98565477 -1.2781301
0.1627842 0.9819802 -1.2781301
0.2463948 0.99955499 -1.276628
0.26729679 0.99416947 -1.276628
0.2883828 0.98825908 -1.276628
0.35274169 0.99682271 -1.266656
0.37383339 0.98910612 -1.266656
0.3945823 0.98101318 -1.266656
0.4431915 0.99780852 -1.263669
0.46361181 0.98848599 -1.263669
0.54534203 0.99321598 -1.267329
0.56638718 0.98136717 -1.267329
0.60498238 0.99911088 -1.262606
0.62250262 0.98828977 -1.262606
0.70482528 0.98351949 -1.2642829
0.04218458 1.016046 -1.26106
0.1683601 1.0156161 -1.276628
0.1866729 1.01241 -1.276628
0.20669229 1.002105 -1.268844
0.2292463 1.0036269 -1.276628
0.2962034 1.015059 -1.266656
0.31450841 1.0095381 -1.266656
0.33352461 1.010167 -1.274333
0.40986329 1.0190049 -1.2712359
0.4290348 1.0039769 -1.263669
0.58384168 1.01161 -1.262606
0.81542969 1.006189 -1.26442
-1.301792 1.0394289 -1.278641
0.065172687 1.027411 -1.276628
0.086262532 1.0258549 -1.276628
0.21359999 1.0355951 -1.266656
0.2368902 1.037091 -1.274333
0.2530767 1.026662 -1.266656
0.27454561 1.02113 -1.266656
0.36422139 1.029263 -1.263669
0.38831079 1.027411 -1.2712359
0.4599466 1.035531 -1.267329
0.481139 1.025856 -1.267329
0.54040861 1.035464 -1.262606
0.56214792 1.023824 -1.262606
0.64488423 1.023823 -1.2642829
0.73361123 1.023688 -1.271998
0.77648962 1.036535 -1.26442
0.79390007 1.023261 -1.26442
-2.067349 1.05967 -1.275016
-0.00098597677 1.057394 -1.266656
0.1114502 1.057948 -1.274333
0.1260127 1.056313 -1.274333
0.14835259 1.053407 -1.274333
0.1739738 1.04948 -1.274333
0.1928973 1.046167 -1.274333
0.3076745 1.05437 -1.2712359
0.32668841 1.0486341 -1.2712359
0.344354 1.042967 -1.2712359
0.4253138 1.057418 -1.274784
0.4452548 1.0419329 -1.267329
0.51844162 1.046635 -1.262606
0.68911988 1.045735 -1.264892
0.75441158 1.052713 -1.26442
0.91935092 1.041194 -1.266929
-0.52170902 1.060168 -1.277287
0.021651009 1.0635819 -1.274333
0.044129331 1.062887 -1.274333
0.067345798 1.061669 -1.274333
0.089138843 1.060061 -1.274333
0.2205514 1.069298 -1.263669
0.24312609 1.064392 -1.263669
0.26287761 1.066421 -1.2712359
0.28517789 1.060676 -1.2712359
0.35524529 1.075954 -1.267329
0.37799099 1.068175 -1.267329
0.4029488 1.066141 -1.274784
0.4589763 1.074042 -1.262606
0.47687739 1.07365 -1.2699471
0.4988499 1.063619 -1.2699471
0.58235949 1.060635 -1.2642829
0.73524922 1.066185 -1.26442
0.80231988 1.071016 -1.262857
0.86987847 1.073375 -1.26019
-1.8512959 1.092356 -1.276503
-0.56028992 1.088035 -1.2787319
-0.54036021 1.098069 -1.2787319
-0.03950955 1.097633 -1.2712359
-0.01981809 1.098165 -1.2712359
0.0455622 1.097398 -1.2712359
0.114384 1.085798 -1.263669
0.1301043 1.090611 -1.2712359
0.1531696 1.087611 -1.2712359
0.17962269 1.083557 -1.2712359
0.19916061 1.0801359 -1.2712359
0.29419759 1.094223 -1.267329
0.31927279 1.094116 -1.274784
0.33702099 1.0818011 -1.267329
0.43585691 1.08363 -1.262606
0.51379848 1.0954911 -1.2642829
0.53708178 1.0842659 -1.2642829
0.60275751 1.097785 -1.264892
0.69025362 1.095852 -1.26442
0.71264023 1.081427 -1.26442
0.84691131 1.091588 -1.26019
-0.60367978 1.113312 -1.279104
-0.086610056 1.101482 -1.278803
-0.063142501 1.103076 -1.278803
-0.001030257 1.104881 -1.278803
0.02248707 1.104653 -1.278803
0.092580967 1.100996 -1.278803
0.25380191 1.11113 -1.274784
0.27278721 1.106622 -1.274784
0.39417031 1.113897 -1.277287
0.41773921 1.105274 -1.277287
0.4754785 1.112659 -1.2642829
0.4911676 1.105823 -1.2642829
0.57944769 1.110265 -1.264892
0.67082649 1.107851 -1.26442
0.82833809 1.1057481 -1.26019
-1.461315 1.124675 -1.271717
-0.57980442 1.125931 -1.279104
0.1194066 1.133476 -1.274784
0.15894359 1.128611 -1.274784
0.2066683 1.120854 -1.274784
0.3309918 1.134276 -1.277287
0.35144669 1.128106 -1.277287
0.370451 1.122008 -1.277287
0.42778441 1.131852 -1.2642829
0.454108 1.129006 -1.271507
0.55589378 1.122244 -1.264892
0.62333012 1.135254 -1.26442
0.64738488 1.1217099 -1.26442
0.78434402 1.137377 -1.26019
-0.27633849 1.148814 -1.277287
0.237315 1.150573 -1.2699471
0.26311779 1.151914 -1.277287
0.28279999 1.147241 -1.277287
0.3067902 1.141059 -1.277287
0.37935919 1.148989 -1.2642829
0.40364891 1.1406831 -1.2642829
0.49213281 1.151631 -1.264892
0.51122743 1.150986 -1.271998
0.53478259 1.140232 -1.271998
0.59922469 1.14816 -1.26442
0.66892052 1.159024 -1.262857
0.76429069 1.159807 -1.266929
-1.905051 1.178978 -1.279528
-0.2080178 1.163128 -1.277287
-0.1833239 1.167274 -1.277287
-0.13726451 1.173582 -1.277287
-0.1165463 1.17582 -1.277287
